ply
format ascii 1.0
element vertex 1248
property float x
property float y
property float z
property uint8 red
property uint8 green
property uint8 blue
end_header
0.912665 3.467894 1.032193 104 124 191
0.844364 3.453044 0.922708 96 111 180
0.827970 3.453093 0.880988 88 96 156
0.779534 3.111606 0.623647 13 14 21
1.690911 1.787829 -0.107735 215 214 211
1.364671 2.608884 0.369706 7 0 0
1.419396 1.650220 -0.293406 152 106 24
1.347300 1.725431 -0.279607 168 129 53
0.008661 2.001533 -0.342448 3 0 6
-0.123747 1.778295 -0.541554 210 165 80
-0.118325 1.800148 -0.528426 218 180 116
-0.095074 1.782258 -0.543898 156 96 14
0.230838 1.748851 -0.518003 54 53 57
0.833018 2.823365 0.258702 75 74 68
0.391903 2.336967 -0.161920 111 65 10
1.789024 1.851763 -0.273752 186 186 189
1.911900 1.813727 -0.294891 65 38 0
1.845913 1.869493 -0.285463 192 150 91
1.293950 3.520101 0.603499 216 216 216
-0.298737 1.911819 -0.736627 226 181 119
1.337470 3.745884 0.182905 221 221 221
-0.567410 2.096370 -0.848953 230 221 213
0.734850 3.323078 -0.116116 112 113 113
1.451176 3.968689 -0.151359 78 78 75
1.434851 3.958382 -0.194377 49 54 53
1.434851 3.958382 -0.194377 49 54 53
1.443789 3.984223 -0.189175 244 243 246
1.434984 3.963314 -0.246122 229 229 226
1.096229 4.567266 -0.619266 222 216 214
2.644814 2.642705 -1.962274 147 131 125
1.778005 3.703666 -1.354982 180 175 170
0.794159 4.509008 -0.791408 75 73 69
3.447473 6.722572 -0.420450 227 218 216
1.574011 3.691063 -1.430494 155 148 143
0.572264 3.527840 -1.282915 138 136 132
0.597320 3.470734 -1.377221 220 219 222
0.522007 2.336027 -1.958531 76 71 62
0.509268 2.161559 -2.042998 190 180 170
0.357572 2.774493 -1.839373 83 80 84
-0.933521 1.510044 0.127563 141 139 137
0.091704 1.531331 0.294807 104 105 105
-0.169705 1.677150 0.104396 69 35 31
-0.146810 1.677824 0.099938 124 63 57
0.959618 3.135075 0.967506 229 229 233
0.041224 1.894023 -0.147577 177 175 173
0.027617 1.918838 -0.136352 83 83 78
-0.730019 1.919021 -0.424886 177 177 174
0.827584 3.423175 0.867609 75 86 140
1.749210 1.773689 -0.061342 228 230 230
-0.079269 1.736354 -0.478518 199 154 66
1.695796 1.803088 -0.080160 190 189 186
1.355054 1.672288 -0.260650 208 167 65
1.404220 1.692732 -0.294920 228 222 218
0.164652 1.761220 -0.502678 119 118 122
1.020464 3.356989 0.591644 120 111 111
1.127946 3.491895 0.644949 2 0 7
1.255280 3.578169 0.678513 71 76 119
-0.177978 1.827537 -0.636773 209 175 110
1.136022 4.046844 0.486262 155 152 156
1.427197 3.930208 -0.014519 53 55 55
1.427197 3.930208 -0.014519 53 55 55
1.429865 3.974877 -0.126200 226 226 226
1.424773 3.964443 -0.220486 57 61 63
3.294248 2.381404 -1.258235 245 245 241
2.748110 2.662448 -1.788845 196 189 182
1.088028 4.516918 -0.630473 228 226 224
3.250684 2.597065 -1.937683 226 222 220
1.100430 4.543536 -0.638469 78 66 65
1.100430 4.543536 -0.638469 78 66 65
1.101096 4.507792 -0.663550 73 61 62
1.287064 4.729004 -0.851194 225 223 219
0.949842 4.591968 -0.843220 228 223 220
1.311705 4.778776 -0.856025 94 92 88
0.625795 2.003156 -1.941396 139 142 136
1.076042 4.602306 -0.889075 68 66 64
1.117208 4.665992 -0.877282 227 225 221
0.680133 3.440307 -1.341564 190 183 176
1.954024 3.595847 -1.594776 144 133 121
1.646015 3.670379 -1.538127 58 55 50
0.618473 3.482306 -1.408673 223 227 230
0.639672 2.460109 -1.933202 26 22 18
0.511461 2.183449 -2.035174 188 179 171
0.441313 2.818949 -1.761217 1 1 1
0.461410 2.937110 -1.720534 218 216 214
0.631337 2.454042 -1.969958 85 84 89
0.640179 2.457386 -1.970300 85 84 89
0.161914 2.623011 -1.854422 26 25 28
0.145432 2.645659 -1.905540 43 38 31
-0.965548 1.685140 0.154415 50 49 45
-0.351546 1.466008 0.286049 43 43 43
0.857438 2.595348 0.963013 68 66 60
0.804353 3.051473 0.742371 145 144 151
0.804353 3.051473 0.742371 145 144 151
-0.067167 1.727571 -0.394626 168 125 72
-0.066821 1.746929 -0.420773 198 159 104
1.525189 1.844760 -0.034716 175 174 177
1.093395 3.451324 0.903122 7 6 14
1.465974 1.645288 -0.248675 204 165 69
1.678121 1.804565 -0.112443 29 27 15
1.666835 1.803044 -0.115700 29 27 15
0.027214 2.019409 -0.336805 0 0 2
-0.142460 1.828463 -0.565975 203 172 112
3.414172 1.799317 -0.207952 167 165 157
1.355728 3.660453 0.698910 71 78 120
1.343095 3.652949 0.694344 71 78 120
0.039198 2.165130 -0.426266 1 1 3
3.386056 1.915243 -0.743332 239 239 238
3.376036 1.966116 -0.742088 193 191 188
0.542375 3.348753 -0.752975 103 103 100
1.000270 4.555653 -0.650996 228 226 224
2.632439 2.602361 -1.987003 100 60 54
1.947499 3.763580 -1.341059 156 151 146
2.102850 3.827673 -1.364011 237 235 231
1.789303 3.554097 -1.561328 188 177 158
1.703580 3.642322 -1.528055 145 143 137
0.562720 3.788945 -1.321669 138 132 118
0.394924 2.702271 -1.774295 201 199 200
0.502930 2.206368 -2.018297 179 170 162
-0.935653 1.701061 0.196428 128 123 121
0.843160 2.569155 1.020211 69 67 65
0.107069 1.955238 0.240851 58 57 61
0.861870 2.618210 0.897561 113 111 104
1.117476 3.322253 1.055837 118 120 120
1.211752 3.402519 1.109807 229 230 233
0.124272 1.747635 -0.537219 0 0 3
0.826843 3.154290 0.380172 83 83 83
1.676154 1.920739 -0.422214 122 122 119
-0.331467 1.934105 -0.754297 204 159 73
2.684420 2.609457 -1.809788 122 125 122
2.692448 2.646380 -1.821024 246 245 243
2.751516 2.663345 -1.822111 246 245 243
2.024425 2.759093 -1.711395 207 207 204
2.610321 2.598709 -1.936833 142 132 117
1.804229 3.597560 -1.476555 95 87 82
0.627373 2.030149 -1.935810 93 98 94
1.577689 4.441515 -1.163898 122 112 96
0.547422 2.211878 -1.943228 178 172 160
0.325209 2.737693 -1.781208 89 86 90
0.483588 2.400227 -2.050292 6 1 0
0.129777 2.591527 -1.876446 20 15 17
3.395620 0.853174 1.485260 230 231 236
1.019365 3.463252 0.908783 7 4 30
3.460735 1.712634 -0.262190 231 231 228
3.333220 1.797718 -0.255387 230 230 230
1.716512 1.929635 -0.459332 236 236 235
0.474430 2.424806 -0.799777 248 248 245
0.461220 2.229815 -1.301912 20 17 21
0.543142 2.271177 -1.329217 232 230 228
2.715477 2.581799 -1.851875 249 247 245
2.622170 2.606474 -1.851886 109 109 109
1.699871 4.712731 -1.034863 177 171 163
0.751040 2.498230 -1.870546 2 1 3
0.621134 2.405674 -1.930722 69 62 57
0.124887 1.973105 0.177777 30 26 29
1.517170 1.848212 -0.002449 18 17 20
0.926810 3.508139 0.823875 9 12 51
1.777637 1.887174 -0.371340 182 175 166
1.001126 3.835204 0.671316 106 106 127
1.144516 4.664850 -0.822292 226 224 220
1.717198 3.623120 -1.551369 41 39 34
0.280318 2.711336 -1.947679 186 167 141
-0.892750 1.490473 0.152684 187 185 181
1.456864 1.647706 -0.281067 180 133 36
1.741647 1.702093 -0.322631 71 47 20
1.360459 4.163303 0.634743 222 224 224
1.583695 3.467054 -0.493399 63 61 57
1.833469 2.578402 -1.782913 165 163 159
0.725543 3.460754 -1.228144 71 70 72
0.703538 3.464559 -1.284281 168 170 170
0.591908 2.031780 -1.987116 86 86 81
0.622990 2.517274 -1.828274 172 174 174
0.061655 1.993927 0.115423 230 231 228
0.004219 1.715411 -0.221489 242 240 236
0.233347 1.724763 -0.420189 174 176 176
0.127309 2.107005 -0.321068 26 23 27
0.143002 2.184342 -0.398032 27 24 30
2.686070 2.640867 -1.747384 230 228 224
1.585132 2.581779 -1.783494 213 211 209
0.648278 2.481128 -1.744768 210 208 209
0.552475 2.509520 -1.767876 43 40 37
1.909730 1.756910 -0.028806 227 229 229
0.689423 3.230067 -0.150296 233 232 231
0.689423 3.230067 -0.150296 233 232 231
0.410214 2.957391 -1.735236 179 168 149
1.078194 3.229224 1.057059 233 233 233
0.072483 1.925866 0.324766 72 70 76
1.873417 1.762095 -0.287449 153 108 62
1.817895 1.731508 -0.291604 74 28 0
0.723145 3.313466 -0.410081 231 231 230
0.707435 3.281454 -0.448188 156 154 152
0.849110 2.944171 0.978555 228 227 230
0.826774 2.597353 1.269987 224 225 225
0.873774 2.556188 1.094547 146 144 138
0.873774 2.556188 1.094547 146 144 138
1.020273 3.104844 1.072505 147 148 151
-0.068285 1.679515 -0.331167 68 30 0
-0.091228 2.220146 0.018119 148 94 14
0.117161 2.022718 -0.112237 132 127 126
-0.050558 2.330364 0.007142 171 120 38
0.979284 3.460912 0.855102 90 91 101
0.053611 2.039585 -0.386135 145 144 138
1.779201 1.679089 -0.328760 126 80 31
-0.232707 1.885691 -0.661770 153 122 63
0.661196 3.488222 -1.266990 159 161 161
0.625175 3.443797 -1.299710 196 200 201
0.494709 2.469557 -1.730172 54 52 53
0.591181 3.463385 -1.370787 153 155 152
0.719132 3.431272 -1.461699 108 108 108
0.539520 3.378476 -1.469318 127 126 124
-0.242134 1.556276 0.160525 65 64 69
0.976210 3.080506 1.026494 68 69 76
0.134340 2.044174 -0.113119 143 136 134
-0.065004 2.315641 0.006709 133 74 1
-0.071914 1.706279 -0.402138 79 39 0
1.054069 3.464004 0.925850 6 6 23
-0.089189 1.730278 -0.477498 200 152 63
0.060494 2.416283 -0.020350 152 105 59
-0.089651 1.792520 -0.494529 155 120 60
0.999532 3.485665 0.785301 33 33 47
0.262806 2.424380 -0.060708 181 141 79
0.986877 3.323629 0.631080 4 0 6
1.747243 1.657609 -0.320196 88 50 4
0.374115 2.338056 -0.145211 158 124 79
0.077508 2.092524 -0.356328 115 115 115
-0.151035 1.815605 -0.569554 189 160 114
0.077961 2.085022 -0.368464 107 109 106
-0.177796 1.816112 -0.623486 157 111 35
1.660727 1.928131 -0.430957 121 121 118
1.711543 3.079192 0.243652 129 130 133
-0.446599 2.009376 -0.797187 237 205 135
1.298312 3.292371 -0.493121 62 57 54
2.683214 2.610001 -1.848416 151 152 150
0.630663 3.550786 -1.262673 146 146 142
1.616033 4.393212 -1.201443 136 125 110
0.475163 2.244691 -1.871317 161 152 141
0.759783 2.513333 -1.854290 39 38 42
0.516302 3.527315 -1.387403 136 136 136
0.647067 2.417739 -1.894613 87 80 74
0.635051 2.468489 -1.876999 95 96 96
0.623488 2.463691 -1.893694 32 32 29
0.725219 2.557302 -1.915167 41 40 44
0.476207 2.282912 -1.976300 54 46 35
0.410645 2.853079 -1.737234 26 24 27
0.178692 2.620166 -1.845562 73 72 77
-0.927030 1.518865 0.119598 102 100 96
0.035530 1.868155 0.071817 156 156 149
0.859311 2.628405 0.842354 59 58 53
-0.118217 1.958133 -0.021240 130 78 10
0.023582 1.877896 -0.114656 164 159 154
-0.109105 2.159722 0.015991 191 143 60
0.008288 1.938606 -0.121138 93 93 89
-0.733140 1.919106 -0.416989 217 217 213
-0.724625 1.912677 -0.423622 198 198 194
0.842674 3.489623 0.804688 44 50 93
0.038738 2.016573 -0.320713 45 44 49
1.027624 3.505267 0.781546 11 10 23
0.232158 2.429298 -0.079600 154 116 65
0.251555 2.436640 -0.072208 154 116 65
0.399682 2.306403 -0.141065 54 24 0
0.804347 3.155404 0.402282 55 52 58
0.836778 2.850407 0.184622 83 81 75
-0.257177 1.881947 -0.688305 230 194 138
-0.417540 1.962389 -0.785413 233 196 114
-0.186611 2.041725 -0.730522 233 202 152
-0.425434 1.986874 -0.789016 233 202 152
-0.569410 2.108943 -0.851359 181 154 123
1.407940 3.802111 0.141008 45 45 45
1.366891 3.817575 0.106511 227 227 224
1.360698 3.869510 -0.567040 226 224 222
1.333492 3.974947 -0.540267 60 60 60
2.670486 2.591548 -1.917376 191 187 183
0.521601 2.112044 -1.906338 108 101 96
1.172743 3.549215 -1.451919 159 153 146
1.602441 4.370228 -1.207503 108 97 82
0.521382 2.135773 -1.966994 80 73 63
0.345061 2.601952 -1.758405 59 57 58
0.621368 2.441778 -1.915806 69 62 59
0.424160 2.874146 -1.732170 32 29 33
0.622596 2.440577 -1.969451 26 23 28
0.179452 2.593002 -1.940706 34 29 31
-0.136316 1.620302 0.062262 160 104 29
0.932358 2.526697 1.028831 236 238 238
-0.101705 1.908800 -0.035610 179 121 43
0.864295 2.658091 0.774428 84 82 75
0.958000 3.051540 1.030131 41 42 45
-0.069491 1.665808 -0.263378 36 13 0
1.639973 1.700664 0.232916 140 141 144
0.047964 1.862056 -0.146660 125 124 119
0.032620 1.872023 -0.158490 122 121 117
0.021092 1.936191 -0.136186 29 27 25
-0.728109 1.935733 -0.433510 192 192 187
0.829467 3.462925 0.800091 17 20 63
0.308529 2.390653 -0.080641 208 173 113
0.913046 2.782497 0.208782 233 234 229
0.910996 2.802864 0.217079 228 230 225
-0.145033 1.791405 -0.604091 17 10 5
0.883166 2.799813 0.192160 98 99 93
-0.192793 1.823482 -0.614535 110 81 51
0.886777 2.896582 0.146371 43 38 31
1.747545 3.061739 0.271347 126 131 130
1.398275 3.631805 0.363198 137 135 136
-0.408923 1.966132 -0.798818 214 169 97
1.456523 3.959376 -0.101710 228 226 227
1.494977 3.979220 -0.121919 228 226 224
1.377916 3.985871 -0.334652 225 224 223
1.887168 3.726860 -1.306962 159 157 154
2.651747 2.609832 -1.970424 137 123 118
0.992499 3.458011 -1.342152 142 137 132
1.797673 3.631835 -1.554743 134 127 115
1.635516 3.491675 -1.586014 68 62 48
0.526052 2.176613 -1.915947 120 113 106
1.556801 4.341306 -1.227218 143 131 113
0.566253 3.495205 -1.378428 82 83 87
0.535609 3.556593 -1.357299 76 73 67
0.606883 3.434199 -1.425626 133 137 139
0.484248 2.251976 -1.955248 7 4 6
0.588434 3.786620 -1.330433 252 251 247
0.636337 2.465254 -1.915629 76 67 59
0.398366 2.511678 -1.986511 47 44 48
-0.408125 1.782425 0.189405 3 1 4
-0.066438 1.856956 -0.038234 20 15 14
0.945018 3.215931 0.912223 255 254 255
0.948224 3.184868 0.810463 52 53 61
-0.088155 1.828247 -0.513763 81 79 75
0.894838 2.817764 0.224965 134 136 136
1.872268 1.735314 -0.324543 159 119 74
1.257543 3.482066 0.592321 49 47 48
1.777925 3.051631 0.270988 220 222 221
1.795053 3.056571 0.250870 101 102 97
1.797648 3.102981 0.235419 194 196 193
0.716687 3.328631 -0.198239 131 132 135
0.718144 3.329395 -0.197735 131 132 135
0.696548 3.324910 -0.227065 237 237 237
1.434490 3.937740 -0.183935 244 244 244
1.450649 3.980485 -0.213243 50 52 52
2.607211 2.690673 -1.753636 183 181 179
2.775462 4.070760 -1.355581 196 190 178
1.602330 3.677877 -1.457594 87 80 75
0.625538 2.059604 -1.973106 220 211 207
0.760799 2.497083 -1.841794 71 66 67
0.635749 2.411505 -1.855425 28 26 22
0.618250 2.364682 -1.953406 55 53 51
0.404670 2.910865 -1.717537 213 211 208
0.673351 2.293506 -2.050085 83 65 52
0.516101 2.170798 -2.059997 190 179 168
0.494884 2.432728 -1.962850 44 43 48
0.371996 2.498357 -1.923929 28 25 30
-0.647648 1.759882 0.223822 65 63 64
3.416696 0.690372 1.412611 226 227 232
0.849675 2.583631 0.986452 65 63 61
0.087438 1.779852 0.042864 166 162 159
0.049640 1.892384 -0.073887 122 110 105
-0.059880 1.699928 -0.318277 177 128 55
-0.065361 1.738085 -0.437169 63 51 46
1.096727 3.464929 0.940846 135 136 143
1.096727 3.464929 0.940846 135 136 143
1.906206 1.700688 -0.316048 184 176 166
0.790056 3.117348 0.283721 235 235 235
1.449750 3.789709 0.219226 79 79 76
1.420319 3.871036 0.065209 50 52 52
1.420319 3.871036 0.065209 50 52 52
2.701634 2.597583 -1.780582 230 228 224
2.625021 2.802889 -1.725849 196 187 179
2.707508 2.828674 -1.731963 196 187 179
2.884067 4.036778 -1.376957 197 191 179
2.710425 2.528336 -2.044242 225 213 191
0.352661 2.681786 -1.727242 85 76 72
0.487952 3.567729 -1.399436 207 207 203
0.483562 2.256730 -1.971403 26 24 22
0.516456 2.159911 -2.072659 38 13 7
0.570395 2.142039 -2.130772 133 71 71
0.559100 2.139448 -2.128937 133 71 71
0.231977 2.669544 -1.892191 38 33 30
0.778887 2.560336 1.225531 190 190 190
0.857934 2.631624 0.849176 98 96 89
1.306468 3.562939 0.647618 225 225 225
1.539128 3.092184 0.180489 49 45 40
2.061486 3.274202 0.131063 168 164 160
2.363098 2.736519 -1.746918 244 244 239
0.289192 2.625280 -1.850015 1 1 4
0.779400 2.647720 1.272361 189 189 190
0.846799 2.552057 1.070516 123 120 114
0.851308 2.679713 0.707835 103 98 93
0.849778 2.679384 0.705459 103 98 93
3.391310 1.752832 -0.250706 169 164 157
1.723558 3.063273 0.240324 83 79 78
-0.284454 1.972062 -0.695792 9 9 16
0.995272 1.875074 -0.611054 42 41 44
1.198630 3.389596 0.269893 228 227 230
1.910736 3.706244 -1.315485 231 226 225
0.555050 2.468810 -1.765381 84 75 69
0.430494 2.691264 -1.717645 118 109 103
0.657222 3.727785 -1.356559 226 224 225
-0.419760 1.802342 0.256368 138 133 127
-0.155025 1.668785 0.144416 81 80 85
0.605645 3.421267 -1.390038 76 80 86
1.038093 3.483627 -1.481396 147 142 139
0.659136 2.537579 -1.886261 81 82 85
0.488734 2.298484 -1.963681 26 23 27
0.628758 2.447715 -1.934701 36 34 32
0.427320 2.525148 -1.912494 74 73 78
0.173244 2.567929 -1.872984 65 64 67
-0.384855 1.696610 0.215686 123 108 97
-0.404995 1.692991 0.198740 123 108 97
1.610123 1.824652 -0.054115 190 190 190
1.823763 1.625728 -0.320016 232 231 234
3.275029 1.678800 -0.322450 231 229 230
0.524069 2.194290 -1.939243 187 179 164
0.247020 2.691819 -1.842301 31 27 32
0.824356 2.554773 1.228851 190 191 191
0.765859 3.094312 0.384547 4 3 6
1.927245 3.565395 -1.572702 74 72 68
0.055715 1.915607 -0.355425 18 15 23
1.742315 3.155340 0.143321 175 173 167
0.790870 2.210318 -1.884793 202 202 199
0.627415 2.379007 -1.835017 73 70 67
1.067811 3.498790 0.834564 0 0 4
-0.173856 1.821882 -0.598199 123 107 75
0.213980 2.435918 -0.058558 135 105 60
0.972254 3.325559 0.635256 157 149 145
-0.732282 1.927135 -0.442925 47 44 39
1.600288 1.942649 -0.394212 167 141 141
0.055220 1.889676 -0.427173 114 112 111
1.628265 3.699662 -1.436164 89 85 81
0.504906 2.201191 -2.003607 45 44 43
0.440589 2.602901 -1.499526 200 194 182
1.843354 3.520986 -0.815529 227 225 225
1.822084 3.350906 -0.380558 249 249 249
0.201138 1.650382 -0.185979 58 59 64
-0.669679 1.764581 0.279305 104 104 104
1.833469 2.578402 -1.782913 147 144 139
-0.397349 1.627630 0.145995 59 48 40
3.336960 0.767508 1.343068 97 144 172
-0.434723 1.791154 0.196691 57 57 50
0.759733 2.749095 1.220317 183 182 185
0.872659 2.548610 1.086595 63 62 57
0.877158 2.562353 1.010332 108 112 114
-0.116582 1.983204 -0.010100 76 31 0
-0.091392 2.298066 -0.002705 112 61 0
-0.090261 1.698678 -0.410401 188 143 55
-0.057988 1.733723 -0.402065 152 116 76
0.050045 2.406209 -0.011801 58 27 0
-0.069248 1.731008 -0.458087 180 128 44
-0.072254 1.764876 -0.446283 183 147 99
0.017697 1.923905 -0.404887 28 26 24
1.160864 2.863504 0.389335 152 144 131
0.042332 2.037321 -0.389811 129 129 122
0.844448 2.836342 0.210674 162 164 160
-0.193028 1.864680 -0.619723 101 56 1
-0.544589 2.046480 -0.858455 229 184 110
0.668399 3.454576 -1.377695 74 77 82
0.444510 2.442965 -1.944796 56 55 62
-0.434614 1.783193 0.211926 129 126 124
-0.443753 1.775702 0.202296 92 87 84
-0.429752 1.796908 0.203297 239 239 232
-0.178843 1.711758 0.132041 29 9 6
0.878747 2.569233 1.017628 170 172 174
0.919606 2.585340 0.989179 100 100 102
0.776419 2.821364 1.075121 85 85 85
0.871494 2.605596 0.923282 102 101 97
-0.090457 1.631907 -0.166710 59 26 0
-0.091551 1.642800 -0.186431 121 82 51
1.095740 2.707216 0.808636 200 200 200
1.249117 2.471922 0.544565 197 198 200
0.831187 2.740596 0.511820 123 118 111
-0.078411 1.715486 -0.397828 44 18 0
-0.013818 2.369234 0.017872 199 150 53
0.856061 2.745599 0.478480 173 172 169
-0.075345 1.717073 -0.427210 68 38 1
1.095240 3.456383 0.922341 46 47 53
0.834805 2.773947 0.429190 146 141 134
0.069195 2.424837 -0.011154 60 20 0
-0.080260 1.743308 -0.481750 189 146 75
-0.082581 1.760730 -0.477263 61 34 0
0.261386 2.421427 -0.053791 37 9 0
0.293082 2.410643 -0.092508 140 110 80
1.536578 1.653169 -0.286490 147 107 67
-0.138535 1.812321 -0.558818 63 38 6
0.842634 2.848470 0.229040 147 141 129
0.828478 2.851805 0.200803 136 131 122
0.821473 2.863548 0.182075 114 111 106
0.861531 2.894589 0.143246 159 159 154
-0.561954 2.056291 -0.855396 219 177 94
0.678404 3.340972 -0.259999 233 232 232
1.331569 3.994812 -0.506029 214 214 214
2.649852 2.548522 -2.006953 182 135 129
1.898285 3.541355 -1.536663 103 92 77
0.521882 2.118146 -1.906433 177 170 163
0.647406 3.454103 -1.390340 32 33 38
0.519586 2.134923 -1.965797 57 48 41
0.768293 3.445405 -1.461313 171 171 168
0.716578 2.523455 -1.891212 44 44 46
3.358062 0.656970 2.342385 154 160 184
0.764660 2.633467 1.268734 184 184 185
-0.213696 1.865515 0.234675 57 54 58
0.902688 2.560868 1.130713 198 198 195
-0.144313 1.603732 0.006424 42 15 0
0.870407 2.563312 1.046701 49 51 48
0.811508 2.844275 1.075295 99 97 91
0.872681 2.621701 0.883384 107 105 101
0.025234 1.775388 -0.010428 20 19 17
0.857488 2.649979 0.785769 83 82 79
0.025619 1.876668 -0.058378 143 136 133
0.046019 1.903308 -0.077268 127 115 112
-0.049813 2.321575 0.022853 201 151 55
1.236946 2.614720 0.385072 5 3 6
0.203706 2.438757 -0.035595 16 0 0
0.294857 2.411255 -0.068395 41 13 1
0.112186 1.745809 -0.530752 3 4 4
0.331557 2.381597 -0.106946 184 152 95
0.444283 2.249884 -0.171271 34 13 0
-0.143712 1.803508 -0.561569 222 192 150
0.765647 3.094743 0.291410 72 72 72
-0.248637 1.868063 -0.676692 117 67 1
-0.354287 1.949335 -0.743249 235 198 137
0.702683 3.428176 -1.301771 94 94 94
0.701026 3.502097 -1.273171 110 113 116
0.581862 2.127652 -1.889964 161 160 162
0.581146 2.209049 -2.011552 74 74 73
-1.015422 1.736408 0.309901 252 254 254
3.353089 0.675734 2.344497 73 71 85
3.327063 0.769947 2.383297 78 76 90
-0.180545 1.582186 0.187854 63 62 67
-0.004579 1.855645 0.013434 159 145 126
1.079747 2.725740 0.649476 167 165 163
0.835894 2.754152 0.504015 70 66 59
-0.060695 1.702778 -0.408208 190 138 48
-0.045320 1.738188 -0.395363 157 111 56
-0.036968 1.739253 -0.392241 157 111 56
0.917409 2.783726 0.210723 239 241 236
0.787678 3.175884 0.403683 83 82 89
-0.224301 1.857634 -0.651872 84 54 20
1.899791 1.860425 -0.301880 36 17 0
-0.284286 1.938321 -0.694028 211 177 97
-0.346679 1.931365 -0.762668 215 170 106
-0.563597 2.047118 -0.858331 147 87 12
-0.560538 2.047904 -0.857880 147 87 12
0.703029 3.465386 -1.356483 166 168 171
0.559981 3.384808 -1.433898 169 169 169
0.622992 2.432557 -1.938753 16 12 13
0.173953 2.566171 -1.914782 42 37 39
-1.000200 1.743468 0.312400 67 69 69
3.340038 0.735069 2.351713 72 70 78
3.347388 0.724994 2.322775 106 105 116
3.503339 0.226327 2.029331 97 96 99
3.441311 0.411633 2.117330 152 162 204
-0.959384 1.666606 0.153473 153 144 136
-0.947774 1.683367 0.150599 135 133 130
-0.153238 1.587552 0.180707 185 184 187
-0.153238 1.587552 0.180707 185 184 187
-0.101038 1.638039 -0.109562 145 94 36
1.458301 1.626709 -0.279481 194 156 76
0.286318 2.425119 -0.087147 15 6 4
0.439384 2.295428 -0.181731 115 80 48
-0.184469 1.824878 -0.611722 94 64 30
1.055867 3.616862 0.550178 105 107 128
0.933333 3.253211 0.104093 113 106 101
3.378834 2.142693 -1.427841 211 210 207
2.959522 3.548053 -0.844627 244 244 241
0.631213 2.366796 -1.823987 62 60 64
1.621071 4.376405 -1.224193 138 125 108
0.527234 2.141926 -2.012644 172 162 150
0.309562 2.712616 -1.799171 28 26 30
-0.569380 1.786205 0.226853 6 4 6
0.805193 2.572747 1.250024 187 189 189
0.939364 2.521331 1.008244 109 114 110
1.026604 3.463503 0.906548 4 3 22
0.829332 3.150726 0.400141 3 2 5
-0.233044 1.869458 -0.685838 193 152 79
3.300438 2.139938 -1.402818 251 251 251
0.598672 3.485586 -1.359664 85 86 89
0.435897 2.673846 -1.697216 108 101 98
0.636715 2.378440 -1.922275 11 9 7
-0.720621 1.733540 0.245098 141 136 133
-0.709078 1.734740 0.228362 122 117 117
-0.725570 1.725817 0.195035 87 80 79
-0.642150 1.760095 0.227479 59 57 56
-0.593677 1.769767 0.229686 116 113 113
-0.500379 1.798539 0.233771 15 10 10
-0.246769 1.642527 0.148628 33 30 34
0.816597 2.528104 1.232149 190 192 192
0.849475 2.659301 0.767060 92 90 84
1.249468 2.492418 0.592164 34 35 36
0.849414 2.751262 0.511779 93 88 80
0.886616 3.456879 0.720113 17 17 31
0.778563 3.139424 0.491256 71 72 79
0.842073 2.820582 0.299655 85 81 71
-0.151292 1.811201 -0.609695 183 138 42
1.856791 3.551117 -0.878522 251 251 251
2.572482 4.758799 -0.460857 173 168 164
1.053396 3.509693 -1.426494 121 116 111
3.265357 2.929776 -1.724829 232 229 228
0.511127 2.256370 -1.847920 202 201 199
0.614074 2.057990 -1.951386 225 213 191
0.488086 2.267153 -1.890302 153 151 145
0.576516 2.281297 -1.900641 153 151 145
0.627882 3.403695 -1.464210 153 151 152
0.629086 2.407731 -1.935244 70 64 60
0.478712 2.269508 -1.980756 184 172 165
0.561351 2.385300 -1.973816 3 0 8
-0.803630 1.688427 0.216877 117 112 107
0.811582 2.615055 1.263772 219 220 220
0.981522 3.355947 0.807942 5 4 11
0.626015 2.527683 -1.879568 80 81 84
0.466021 3.591549 -1.473424 173 160 143
-0.389013 1.775868 0.179150 8 6 11
-0.197175 1.625135 0.098022 12 11 17
1.578267 1.840963 -0.242821 63 61 62
0.905222 3.379581 0.011711 138 133 130
0.623635 2.026817 -1.944894 86 90 86
0.632494 2.027815 -1.945895 86 90 86
2.250028 5.028087 -1.023714 193 191 187
0.825587 2.554896 1.229447 188 189 190
0.074152 1.902709 -0.412588 178 178 175
0.074152 1.902709 -0.412588 178 178 175
1.015445 3.340877 0.504822 22 20 23
-0.608062 1.587111 0.196904 184 177 170
0.886142 2.572826 1.006245 147 147 151
1.005530 2.657173 0.705368 253 253 253
0.084119 1.824201 -0.122194 173 171 168
0.163156 2.001685 -0.231174 56 57 60
1.047725 3.414411 1.182371 86 92 117
0.257563 2.431901 -0.063558 70 44 4
0.472371 2.278439 -1.853922 175 166 163
0.465229 3.554443 -1.466193 157 146 126
0.028766 1.905828 -0.130012 181 177 173
-0.332209 1.656750 0.197468 114 108 100
1.533979 1.843751 -0.048392 138 138 136
0.599426 3.508697 -1.384379 107 108 109
0.565100 2.637657 -1.531379 239 234 229
0.594766 2.682700 -1.586149 161 150 135
-0.386071 1.631178 0.145680 117 108 103
-0.363095 1.694541 0.166283 76 71 71
-0.425817 1.790939 0.194252 135 131 125
0.825186 2.612412 1.247386 188 189 189
-0.156352 1.587981 0.060382 143 93 27
0.872054 2.576209 1.064167 103 101 98
0.918131 2.530682 1.040954 234 235 238
0.863352 2.584400 0.972734 70 68 66
0.861955 2.617613 0.934998 119 117 115
0.863794 2.653936 0.815026 135 133 127
0.855271 2.659527 0.788119 140 138 132
0.026783 1.862432 -0.035217 44 41 45
1.296325 2.632330 0.896080 201 201 201
0.966295 3.051524 1.009243 105 104 111
0.847742 2.679454 0.716225 132 129 120
0.043388 1.863692 -0.077528 92 86 85
0.852933 2.677322 0.689706 96 94 91
1.088288 2.691669 0.738726 205 206 209
0.855303 2.705446 0.611506 106 104 100
0.135388 1.870561 -0.149346 18 17 20
-0.075228 1.695790 -0.341804 152 120 94
1.628796 1.697172 0.188171 102 104 100
1.077233 2.752978 0.646372 201 201 198
1.053545 2.721405 0.613241 154 154 154
1.251615 2.482327 0.499895 89 86 83
-0.710442 1.954087 -0.435983 68 66 67
0.038769 1.834450 -0.344641 60 59 64
1.210212 2.416511 0.305949 139 94 37
-0.094399 1.747959 -0.485147 73 44 10
-0.108510 1.766647 -0.492379 76 54 27
0.013456 2.000823 -0.333054 52 51 56
0.226192 2.433439 -0.031213 67 34 0
-0.110718 1.760172 -0.514202 143 95 22
0.060961 1.854164 -0.430077 154 151 146
0.014289 1.926527 -0.412030 95 93 89
1.431033 1.648350 -0.242713 199 176 132
1.404896 1.662007 -0.244958 201 178 118
0.297284 2.421491 -0.078927 57 28 0
1.404968 1.654300 -0.254942 232 194 121
-0.137024 1.802178 -0.549790 209 183 152
1.378561 1.656338 -0.268979 192 151 53
0.846626 2.837011 0.273249 145 143 137
0.340381 2.378107 -0.115222 173 137 90
-0.149972 1.814216 -0.575744 70 39 3
0.442837 2.246338 -0.188612 155 122 82
1.379009 1.703186 -0.289390 157 134 100
0.004931 1.946486 -0.483296 132 131 136
1.558864 1.640983 -0.308109 167 128 91
1.607226 1.626783 -0.310518 103 66 15
1.605396 1.635211 -0.312621 170 134 92
0.835402 2.860186 0.190797 147 145 139
-0.183159 1.829151 -0.626632 130 81 7
-0.188197 1.871817 -0.617118 205 168 119
-0.205740 1.851523 -0.641345 82 50 4
1.839786 1.757707 -0.285546 142 109 53
1.109484 3.561796 0.524496 95 99 110
1.255856 3.621768 0.577393 111 113 120
-0.342320 1.955372 -0.735376 167 139 82
-0.452653 2.007756 -0.804930 139 106 61
-0.452653 2.007756 -0.804930 139 106 61
0.524755 1.922866 -0.918495 72 19 7
0.702144 3.329129 -0.211609 230 229 232
0.705178 3.330960 -0.263411 230 229 228
0.675411 3.366873 -1.282612 136 136 132
0.618049 2.001659 -1.929798 206 203 198
0.634525 2.021717 -1.932518 89 89 86
0.652261 2.135213 -1.888930 195 190 189
0.527406 2.120649 -1.891937 235 234 231
0.528198 2.120793 -1.891957 235 234 231
0.516449 2.091176 -1.906848 178 179 179
0.503326 2.178396 -1.874945 146 144 139
1.860317 3.628246 -1.504271 70 67 62
1.784382 3.602184 -1.513679 128 124 119
0.605368 3.448758 -1.361637 84 92 93
0.624042 2.034981 -1.979601 74 79 78
0.509175 2.168608 -1.910234 118 113 108
0.516282 2.144927 -1.928497 152 148 146
0.470566 2.296235 -1.868831 19 14 11
0.741453 2.505448 -1.838154 35 32 36
0.772168 2.530951 -1.837552 161 162 167
0.615105 2.424654 -1.905235 133 131 129
0.521031 3.560832 -1.402073 212 212 209
0.495396 2.224745 -1.993009 178 173 166
0.510921 2.186183 -2.026815 27 22 15
0.509187 2.194129 -2.024012 50 45 38
0.426112 2.846200 -1.743235 22 21 24
0.466971 2.305284 -1.987609 43 36 27
0.538436 2.082198 -2.104274 40 18 18
0.363062 2.563764 -1.870812 64 62 63
0.359203 2.797480 -1.773829 20 19 24
0.340270 2.688445 -1.816784 63 62 67
0.485148 2.373876 -1.984111 51 48 52
0.506563 2.208421 -2.063141 26 21 15
0.367869 2.508301 -1.922473 33 30 34
0.469748 2.341007 -2.026597 166 154 145
-0.987741 1.524891 0.406732 27 28 37
-0.953913 1.384845 0.235261 199 200 200
-1.004763 1.743740 0.314151 110 112 112
3.327647 0.658139 2.645199 78 89 116
-0.393651 1.590672 0.149572 111 110 115
-0.418393 1.799301 0.195132 102 97 96
0.862855 2.650580 1.283239 180 181 182
0.947979 2.539487 1.248410 219 221 221
-0.172622 1.604475 0.077621 48 26 2
0.867718 2.557381 1.079428 120 118 112
-0.130609 1.608149 -0.020575 129 84 46
0.943077 2.577714 1.011411 81 85 87
0.841287 2.865143 1.116612 62 64 64
-0.008161 1.829158 -0.016928 2 1 4
0.023615 1.816646 -0.014803 2 2 4
0.860325 2.637174 0.816181 69 67 63
0.035362 1.893291 -0.058984 128 116 111
1.211174 2.548939 0.739806 138 126 133
0.855245 2.698116 0.693334 83 81 73
-0.113115 2.166534 0.001504 175 129 74
0.862725 2.693662 0.634329 173 171 168
0.005072 1.936516 -0.120355 70 72 67
-0.091501 2.220486 0.011120 182 133 77
-0.077022 1.674342 -0.318500 142 99 53
-0.070411 1.681645 -0.317873 53 25 2
1.265608 2.421947 0.581640 185 180 178
0.851724 2.715923 0.614338 153 151 141
-0.066636 1.689965 -0.328151 46 28 15
0.860910 2.710601 0.584580 175 171 169
0.847366 2.742079 0.561532 111 109 101
0.842691 2.728734 0.536720 101 98 89
1.247150 2.471104 0.494747 164 163 159
-0.079601 1.721163 -0.397807 159 116 74
0.862537 2.751571 0.468957 173 171 168
0.856207 2.753969 0.453773 172 170 166
0.062392 2.414283 -0.014110 144 97 55
1.065020 3.440489 0.858579 159 158 165
0.066491 1.834564 -0.396282 5 5 7
0.182613 2.438116 -0.034886 117 81 54
0.031017 2.007527 -0.344680 138 139 142
0.855043 2.807164 0.327004 91 86 81
0.869148 2.806535 0.322734 166 166 161
-0.122204 1.787832 -0.525544 188 162 127
0.209261 2.445570 -0.057209 137 104 62
1.017995 3.406729 0.684851 0 0 2
0.337328 2.377676 -0.098232 37 12 1
0.336890 2.377849 -0.098232 37 12 1
-0.135026 1.784029 -0.562157 231 192 140
0.391077 2.316369 -0.136928 217 187 129
1.425967 1.636716 -0.296110 201 156 67
-0.150875 1.801695 -0.577512 83 54 17
0.879664 2.827093 0.249453 248 252 249
0.080251 2.084068 -0.367758 137 139 135
-0.174002 1.810470 -0.601174 232 196 143
-0.168467 1.805459 -0.602772 127 77 7
-0.172829 1.804966 -0.603828 127 77 7
1.592674 1.643499 -0.311228 59 27 0
1.601723 1.643824 -0.309076 59 27 0
1.638269 1.635621 -0.315932 82 45 2
0.885619 2.848344 0.204052 101 101 98
0.885619 2.848344 0.204052 101 101 98
-0.178062 1.845974 -0.607760 204 178 135
1.722258 1.670610 -0.288652 96 50 10
1.690365 1.638492 -0.325896 147 123 95
1.740140 1.678391 -0.293836 164 115 64
0.845633 2.848666 0.174978 177 177 170
-0.195025 1.857144 -0.619881 214 183 122
-0.207328 1.844547 -0.641373 236 201 148
0.860253 2.858730 0.162712 175 173 167
1.243488 1.744949 -0.435905 166 119 57
1.361201 3.537802 0.580148 222 222 222
1.887436 1.830783 -0.300477 153 112 71
1.874028 1.812902 -0.313951 138 101 69
1.867448 1.849578 -0.298155 156 112 74
-0.262011 1.879215 -0.697000 156 106 23
-0.280010 1.912747 -0.698115 100 70 26
1.736908 3.078726 0.271215 134 141 140
1.803537 3.162902 0.197491 160 155 148
-0.497414 2.025713 -0.835978 93 47 1
-0.497414 2.025713 -0.835978 93 47 1
0.407037 2.454562 -1.407444 51 50 54
0.749180 3.494354 -1.242000 106 106 107
0.680290 3.394994 -1.303114 124 120 120
0.637093 3.495196 -1.253043 92 90 88
1.829921 3.581161 -1.481392 105 98 91
0.618304 3.463033 -1.314147 142 142 135
0.771369 3.639250 -1.272757 141 140 137
0.484021 2.241363 -1.861534 170 165 160
0.473946 2.270098 -1.856259 9 7 4
0.571119 3.450874 -1.387404 80 82 83
0.745571 2.491429 -1.851963 49 46 52
0.592475 3.443825 -1.418488 185 189 193
0.713324 2.529039 -1.841229 180 180 181
0.571672 2.178212 -1.963431 159 153 141
0.627131 2.468452 -1.885648 102 102 102
0.520563 2.151096 -2.014492 11 8 1
0.528247 2.151050 -2.012386 11 8 1
0.691210 2.563536 -1.886359 43 40 44
0.513031 2.148783 -2.042589 168 157 142
0.430277 2.723396 -1.785613 95 94 97
0.429982 2.850851 -1.737229 118 117 119
0.532021 2.112234 -2.070426 125 104 96
0.346744 2.640292 -1.827570 60 59 62
0.354698 2.576156 -1.862882 60 57 57
0.516583 2.170182 -2.071745 190 178 173
0.324632 2.584629 -1.870612 3 1 7
0.372691 2.884592 -1.772558 25 22 26
0.595930 2.219013 -2.101938 113 99 92
0.169209 2.621237 -1.868612 86 81 86
0.168273 2.594606 -1.921743 28 25 29
-0.473824 2.422572 -2.101804 118 95 63
3.379216 0.449510 2.696242 172 176 200
3.309842 0.766741 2.778566 167 166 171
3.481687 0.210690 2.406306 107 106 111
3.517795 0.110016 2.350858 122 130 163
3.332125 0.704371 2.539633 181 178 184
3.524599 0.123492 2.164355 94 92 96
3.262721 0.908464 2.507987 155 161 185
3.350252 0.702395 2.316269 85 87 104
-0.439287 1.821299 0.261859 79 77 78
-0.402891 1.839751 0.288568 151 148 152
0.052268 1.552523 0.245813 94 94 94
-0.174861 1.620181 0.163372 129 126 131
-0.174861 1.620181 0.163372 129 126 131
-0.121945 1.673203 0.159353 77 76 80
-0.168625 1.651800 0.119004 56 15 8
-0.142636 1.603656 0.007819 51 19 0
0.893856 2.552125 1.057905 248 249 251
0.813857 2.610512 0.965881 177 178 178
-0.075446 1.867841 -0.046204 175 145 109
-0.066610 1.876153 -0.049498 48 29 12
1.297998 2.645763 0.884348 227 227 228
-0.089658 1.669217 -0.287925 54 29 6
1.214084 3.442334 1.187038 26 21 26
0.853557 2.721730 0.626913 113 111 103
1.024336 3.225922 0.987690 221 220 223
1.646931 1.696791 0.210422 144 148 148
0.963463 3.241679 0.921960 79 80 84
-0.080696 1.695105 -0.355388 155 108 65
-0.717364 1.943151 -0.416011 218 218 215
1.248779 2.492170 0.538767 200 200 200
1.209429 3.447575 1.073541 74 68 71
-0.008768 2.360846 -0.001541 42 17 0
0.006477 2.383034 0.000539 37 3 0
-0.073705 1.734250 -0.415499 46 17 0
0.121299 2.415162 -0.002146 186 152 100
-0.090325 1.767142 -0.460429 174 132 78
0.056164 1.829737 -0.394055 202 203 206
0.056164 1.829737 -0.394055 202 203 206
0.143616 2.437705 -0.034312 135 90 50
-0.111423 1.762539 -0.507903 190 155 98
0.283166 2.411909 -0.080853 180 143 90
0.257368 2.433569 -0.078022 139 102 62
0.308740 2.403964 -0.102259 143 104 63
0.308768 2.404194 -0.102429 143 104 63
-0.049919 1.877128 -0.496741 67 69 70
0.452882 2.226968 -0.193676 34 11 0
0.454885 2.233994 -0.200563 122 89 54
0.929744 2.803115 0.235972 121 119 111
1.573458 1.649215 -0.296212 92 56 22
-0.177374 1.833061 -0.596991 222 197 153
0.817861 3.204367 0.413351 5 4 11
1.748070 1.672578 -0.302865 41 15 0
-0.214224 1.861810 -0.641331 227 196 143
0.845272 2.881570 0.155396 86 82 78
1.327876 3.523621 0.604892 76 76 78
1.327876 3.523621 0.604892 76 76 78
-0.241462 1.870025 -0.665990 230 200 146
-0.252262 1.892013 -0.675104 221 189 132
-0.284095 1.899349 -0.700229 232 207 173
-0.282497 1.899539 -0.699763 232 207 173
-0.330291 1.926062 -0.739674 117 62 0
1.736780 3.109897 0.221180 106 104 100
1.374302 3.692892 0.292699 35 31 34
1.304641 4.014912 -0.381210 217 217 217
1.305384 3.994701 -0.505631 54 53 55
1.304490 3.980819 -0.524812 44 43 46
1.340719 3.931747 -0.575897 49 48 51
0.378505 2.546067 -1.620443 54 54 54
1.918684 3.399973 -1.524436 136 126 110
0.660034 3.383270 -1.332524 99 99 96
1.868947 3.646549 -1.498817 162 159 153
0.618122 2.389114 -1.836043 107 99 97
0.491623 2.228165 -1.940166 4 1 0
0.370925 2.626061 -1.765709 66 63 65
0.690502 2.543186 -1.873761 194 194 196
0.567028 2.188247 -2.005436 67 67 68
0.682789 2.556879 -1.878583 122 122 125
0.540581 2.043536 -2.081965 159 146 136
0.546848 2.061078 -2.086223 121 102 96
0.350420 2.625298 -1.811587 34 31 35
0.537521 2.079276 -2.086777 156 138 137
0.523144 2.154290 -2.065960 174 167 162
0.530225 2.054325 -2.109425 52 31 30
0.483808 3.549659 -1.491311 177 165 146
0.368864 2.891288 -1.772515 95 92 96
0.368864 2.891288 -1.772515 95 92 96
0.167506 2.576792 -1.883576 29 28 30
0.188033 2.576788 -1.893734 68 62 67
0.161209 2.624590 -1.876207 89 88 91
0.161209 2.624590 -1.876207 89 88 91
0.444344 2.400837 -2.048100 37 32 26
0.171579 2.581870 -1.909399 67 64 68
0.175122 2.582918 -1.909076 67 64 68
0.185474 2.597640 -1.931976 74 72 74
0.175911 2.595108 -1.931300 74 72 74
-0.470558 2.430377 -2.030439 219 200 174
3.294692 0.824219 2.949587 146 147 150
3.364881 0.504926 2.728348 161 163 183
3.404617 0.401017 2.655425 114 123 146
3.396410 0.426482 2.587011 66 69 87
3.524335 0.054419 2.354301 94 91 97
3.298924 0.798504 2.736309 169 169 175
3.505424 0.206631 2.445441 161 164 187
3.460608 0.268706 2.414190 79 83 110
3.454301 0.301370 2.357239 102 102 121
3.379371 0.559041 2.359910 142 141 156
3.502987 0.221785 2.060082 166 165 170
-0.161624 1.598481 0.035935 167 116 49
0.952311 2.504856 1.008195 221 221 221
0.045664 1.815075 -0.092969 177 176 176
0.877585 2.996164 0.885366 17 18 25
0.989767 3.241254 0.958733 103 104 108
1.235087 2.514476 0.549070 58 57 60
1.203116 2.506799 0.534936 58 57 60
0.860367 2.751293 0.544650 78 76 67
0.101796 2.407529 0.011428 157 111 52
1.054751 3.471962 0.882523 8 9 16
-0.103652 1.746381 -0.507778 127 70 5
-0.120984 1.772110 -0.514915 206 170 112
0.029583 1.933790 -0.421252 40 38 36
1.034129 3.363662 0.601412 131 124 115
1.034129 3.363662 0.601412 131 124 115
-0.159319 1.815295 -0.581808 104 76 47
1.161101 3.421220 0.558417 145 140 137
0.790523 3.136139 0.296130 74 75 78
-0.173283 1.879542 -0.621299 200 164 99
1.340372 3.541448 0.560985 99 97 83
1.340372 3.541448 0.560985 99 97 83
1.151665 3.653882 0.583859 105 108 128
-0.586108 2.044169 -0.855581 220 176 84
-0.581946 2.054732 -0.864494 213 172 83
-0.564680 2.059198 -0.876638 201 155 77
1.391798 3.812450 0.113788 62 63 61
1.391798 3.812450 0.113788 62 63 61
1.413090 3.923284 0.009675 224 223 223
2.921558 3.444488 -0.209848 230 230 227
1.435476 3.928394 -0.037707 226 224 225
1.417122 3.977128 -0.292334 229 229 229
1.352050 4.029082 -0.416338 222 222 219
1.293290 3.767780 -0.568471 225 223 224
1.331990 3.823219 -0.569465 226 226 223
1.360310 3.831876 -0.595784 226 226 223
0.667994 3.450517 -1.262654 245 247 247
0.674058 3.461853 -1.273100 118 122 124
0.658850 2.144777 -1.886331 131 129 127
1.858693 3.599427 -1.501852 173 173 169
0.750903 3.640836 -1.289494 116 116 111
0.365888 2.586366 -1.713213 51 48 52
0.519770 2.138397 -1.942187 11 6 2
0.445244 2.641058 -1.775612 40 37 39
0.560076 2.180051 -1.998488 6 5 8
0.631333 2.443931 -1.916604 68 59 55
0.595908 1.996248 -2.126162 171 165 163
0.558053 2.145269 -2.105589 114 35 35
0.381976 2.900856 -1.782965 82 81 84
0.170951 2.635009 -1.894945 107 107 107
0.184201 2.592029 -1.920446 67 64 66
0.210543 2.605836 -1.980668 182 166 132
-0.401890 2.195665 -2.113598 102 76 47
3.496616 0.265388 2.600468 135 140 153
3.380230 0.458609 2.623387 80 84 92
3.312093 0.742228 2.773396 87 89 98
3.316424 0.716528 2.688690 65 71 79
3.392993 0.456325 2.535457 84 94 118
3.466934 0.240817 2.399939 165 163 178
3.392139 0.481982 2.510616 200 205 220
3.508250 0.159860 2.204729 129 124 119
3.445571 0.351261 2.277388 171 179 211
3.534260 0.109066 2.089074 90 84 79
3.432269 0.422049 2.182877 137 146 180
0.762673 2.803376 1.110573 221 222 222
0.958133 2.541257 1.005731 224 226 226
-0.067147 1.668657 -0.237479 104 59 18
-0.041661 1.721228 -0.365498 162 115 54
0.963140 3.279850 0.843061 39 38 43
0.224291 2.440310 -0.067261 31 18 9
1.136549 2.845912 0.393843 170 163 154
1.436119 3.963065 -0.117710 53 57 54
1.436119 3.963065 -0.117710 53 57 54
1.985822 2.740236 -1.739215 97 92 83
1.797112 3.641310 -1.498218 53 51 43
0.635638 2.020412 -1.988712 89 89 82
0.557673 2.183956 -1.918938 107 105 99
0.519550 2.149654 -1.931671 135 128 123
0.477148 2.279398 -1.899453 21 19 15
0.619196 2.426419 -1.920819 18 15 14
0.564908 2.012910 -2.105813 155 142 138
0.616533 2.405613 -1.961612 39 36 40
0.462711 2.343133 -1.992305 186 178 171
0.581438 2.007278 -2.189435 71 16 11
0.505674 2.049161 -2.164403 54 5 0
0.496964 2.081887 -2.153028 61 16 5
0.180356 2.627427 -1.852802 31 29 35
0.174879 2.612981 -1.857492 97 97 103
3.443584 0.319351 2.589355 134 145 167
3.455721 0.251192 2.504266 186 193 210
3.413066 0.403339 2.565066 203 208 226
-0.975384 1.757948 0.328358 210 209 212
3.334351 0.638653 2.620515 163 173 199
3.339365 0.637491 2.623773 163 173 199
3.302990 0.757125 2.617307 83 84 93
3.472839 0.208203 2.279372 173 172 174
3.293826 0.833510 2.612483 158 161 176
3.349699 0.569724 2.449328 153 155 168
3.278128 0.882852 2.595128 168 171 189
3.389546 0.507935 2.358259 120 119 126
3.362823 0.606573 2.356696 138 138 152
3.449239 0.340294 2.218807 86 84 85
3.421391 0.451654 2.098717 146 155 182
-0.158911 1.602030 0.176494 11 10 13
0.815012 2.603882 1.250565 215 217 217
-0.124654 1.836396 0.226620 84 82 83
0.058295 1.814737 -0.394501 0 0 2
0.027098 2.019117 -0.336389 1 0 3
1.045641 3.449826 0.709566 2 1 6
1.812415 3.084743 0.320048 224 226 226
-0.404231 1.978018 -0.799266 204 160 80
1.387334 3.704575 0.275818 39 38 41
1.424228 3.839824 0.104989 69 71 68
1.424228 3.839824 0.104989 69 71 68
1.340646 3.808841 -0.580205 44 46 44
1.340646 3.808841 -0.580205 44 46 44
1.336055 3.849713 -0.588825 59 59 58
1.334520 3.848931 -0.588933 59 59 58
3.358511 2.305457 -1.944983 243 240 237
1.671951 3.642236 -1.448024 73 64 56
0.467766 2.297195 -1.859364 172 165 156
0.562609 2.186225 -1.938609 180 168 163
0.660160 2.522047 -1.858033 38 37 40
0.418696 2.829602 -1.751218 119 117 120
0.497835 2.226082 -2.044423 181 169 162
0.491755 2.300046 -2.042582 195 186 178
0.393432 2.919381 -1.777913 33 29 29
0.271332 3.400565 -1.720875 201 185 160
3.447280 0.333239 2.548483 186 193 216
3.372639 0.498389 2.531706 83 88 106
3.463050 0.272582 2.374907 88 87 100
3.325868 0.720484 2.529402 182 179 185
3.301803 0.971500 2.307756 76 75 77
3.364366 0.967804 2.350815 76 75 77
-0.614578 1.779417 0.259343 127 125 126
-0.158189 1.618422 0.089969 160 115 42
0.035411 1.777261 0.033356 180 175 168
0.844295 2.778832 0.421834 86 83 74
0.235612 2.430773 -0.013140 205 159 45
0.839821 2.797334 0.360669 131 126 118
0.778563 3.139424 0.491256 63 64 71
1.009245 3.415669 0.660957 75 74 77
-0.381379 1.960016 -0.783577 207 161 73
1.407029 3.696918 0.309654 47 46 46
1.407029 3.696918 0.309654 47 46 46
1.289117 3.868730 -0.591910 141 141 142
1.324592 3.932597 -0.567217 161 160 162
1.321745 3.931345 -0.567325 161 160 162
2.993834 3.522724 -0.879078 182 177 170
0.583156 2.026684 -2.010577 66 64 60
0.567331 2.012580 -2.118294 73 60 59
0.364763 2.551425 -1.941314 23 18 17
-0.910608 1.394085 0.227445 214 213 216
3.534791 0.124706 2.459942 98 96 94
3.400462 0.514631 2.611693 194 195 206
3.293927 0.766172 2.668730 180 185 207
3.432213 0.338455 2.458713 93 93 96
3.302608 0.831514 2.714031 94 93 96
3.325663 0.700845 2.612533 195 189 198
3.287613 0.793758 2.599126 90 89 95
3.348927 0.657538 2.501796 195 193 201
3.429148 0.318466 2.103492 193 192 203
-0.553790 1.771706 0.210926 124 118 113
1.114694 2.648929 0.824046 192 193 196
1.751952 3.998637 0.324248 229 229 226
1.811363 3.722965 -1.384543 147 145 141
0.467948 2.326055 -1.965925 182 173 162
3.352317 0.633979 2.703264 79 80 87
3.355727 0.632615 2.704916 79 80 87
3.345423 0.658764 2.270140 180 189 212
3.451736 0.374175 2.095672 85 84 87
1.003884 3.319217 0.464261 45 42 46
1.253881 3.538432 0.628541 221 222 225
1.551368 3.661121 0.449912 221 221 221
1.256794 3.563109 -1.421080 195 193 191
1.629188 4.403377 -1.187669 118 107 93
0.166298 2.577847 -1.912445 44 42 43
-0.909153 1.392356 0.218375 213 214 214
3.596453 0.102601 2.407993 168 174 209
3.530902 0.137812 2.266282 97 92 87
3.295502 0.812285 2.474885 192 192 211
3.547239 0.097945 2.021893 95 89 77
0.706860 3.451250 -1.227422 70 70 72
0.638334 2.570801 -1.867476 39 37 38
0.069361 1.850248 -0.439279 203 201 198
1.111978 3.466815 0.840338 1 0 5
1.785537 1.786011 -0.241072 226 228 228
1.020963 3.395799 -0.059024 230 228 229
1.020963 3.395799 -0.059024 230 228 229
0.844088 2.737622 0.508392 85 83 78
0.770492 3.136426 0.445312 37 36 43
0.310543 2.382748 -0.087873 45 25 0
1.722312 1.665659 -0.321341 149 103 63
0.086264 1.759669 -0.159451 211 210 208
0.631786 2.462196 -1.881002 38 40 36
0.515084 2.191560 -2.015953 50 49 44
-0.105707 2.195104 0.012216 129 103 55
-0.195970 1.872612 -0.631820 215 179 89
-0.291987 1.905059 -0.741134 8 1 3
-0.396708 1.601592 0.140833 225 224 227
-0.068881 1.680115 -0.347150 89 49 2
-0.925191 1.494545 0.117192 237 238 235
0.810429 2.574614 1.253289 200 200 201
0.665395 3.457068 -1.274820 126 127 126
-0.971931 1.681040 0.159718 126 121 115
-0.153148 1.804818 -0.594875 155 96 11
-0.155261 1.807416 -0.585550 225 188 112
0.999195 3.343308 0.612481 160 153 150
-0.912718 1.503111 0.112413 81 77 75
0.770684 2.700901 1.296332 187 188 188
-0.417771 1.869949 0.290717 217 218 221
-0.417771 1.869949 0.290717 217 218 221
0.920269 3.588492 -0.852192 248 247 250
3.610212 -0.120782 2.714410 114 108 102
3.405724 0.345236 2.864415 152 153 158
3.303691 0.445366 2.839685 147 147 150
3.379503 0.392264 2.856139 191 192 197
3.414631 0.398318 2.881165 160 161 166
3.486900 0.207459 2.801936 145 143 143
3.406813 0.358321 2.843962 106 107 116
3.475630 0.179083 2.751324 124 123 128
3.427786 0.279051 2.772531 125 125 133
3.398760 0.374692 2.804416 200 201 210
3.418811 0.287658 2.753808 168 168 177
3.440153 0.326464 2.795585 180 181 190
3.433178 0.277751 2.737259 158 157 163
3.386741 0.358567 2.729710 183 184 194
3.455699 0.175555 2.642215 111 109 112
3.438991 0.289839 2.685314 106 106 119
3.409964 0.290892 2.652720 109 109 123
3.411397 0.331167 2.677004 138 141 159
3.425287 0.305747 2.655329 120 125 141
3.334391 0.491025 2.702644 93 95 109
3.463985 0.191395 2.583413 127 129 145
3.393092 0.420665 2.685592 155 164 187
3.425992 0.302061 2.624825 176 180 198
3.483135 0.231677 2.615921 138 145 168
3.447660 0.309616 2.639719 136 143 164
3.360034 0.637467 2.783042 104 105 110
3.455126 0.265646 2.582953 104 111 128
3.408958 0.340297 2.578415 159 168 195
3.447930 0.275570 2.555647 103 107 118
3.423748 0.314128 2.552815 127 136 160
3.418380 0.356891 2.569146 125 134 156
3.384351 0.473038 2.582106 138 135 149
3.446617 0.318663 2.497230 153 160 174
3.466597 0.253996 2.460536 130 131 140
3.482042 0.195005 2.410478 151 152 159
3.513119 0.099676 2.336204 166 172 205
3.291029 0.811512 2.656301 82 85 94
3.409156 0.244957 2.338619 136 135 140
3.504810 0.226406 2.352395 169 169 169
3.446990 0.231633 2.294247 178 178 178
3.448008 0.351166 2.124026 146 145 151
3.480217 0.344551 2.125270 155 154 159
0.867194 2.542322 1.094963 102 102 101
0.867504 2.542239 1.095024 102 102 101
0.930571 2.544234 1.020626 150 157 155
0.067804 1.950760 0.188774 138 140 144
0.860232 2.625820 0.888063 142 137 132
0.860776 2.635578 0.862246 141 138 131
0.859842 2.637971 0.852231 142 137 132
-0.089366 1.980028 0.006542 192 147 72
-0.115709 2.075444 0.002560 109 64 2
-0.115709 2.075444 0.002560 109 64 2
-0.706588 1.887372 -0.351732 111 132 185
0.850040 2.667944 0.714127 83 81 77
-0.107691 2.179819 0.024373 123 75 9
-0.734558 1.913289 -0.393229 61 76 134
-0.716959 1.916693 -0.440900 169 167 161
1.120039 2.305753 0.408417 92 36 1
-0.063834 1.707862 -0.368800 119 87 54
1.118049 2.394542 0.344681 192 143 70
-0.074744 1.742974 -0.421440 172 131 81
0.026150 1.832757 -0.349304 63 62 67
1.158897 2.369453 0.322316 160 110 50
-0.083736 1.733905 -0.458873 80 36 0
0.102346 2.424381 -0.019443 136 90 53
0.835936 2.789651 0.387026 53 48 45
-0.103395 1.767889 -0.500173 42 27 5
0.174283 2.454091 -0.034954 116 84 52
0.007718 1.992429 -0.346695 48 47 50
0.011722 1.933271 -0.418228 146 144 140
0.856081 2.811866 0.312952 56 51 46
0.337623 2.377604 -0.116499 177 143 97
0.370890 2.349839 -0.135733 40 17 0
0.378653 2.338867 -0.143182 156 131 88
0.120944 1.748667 -0.552454 4 5 5
0.419273 2.299844 -0.170267 36 10 0
1.566781 1.641128 -0.305734 174 134 95
0.807624 3.149633 0.265529 102 94 86
-0.313708 1.914218 -0.735524 172 129 57
-0.384194 1.964813 -0.760457 92 62 13
-0.394964 2.033458 -0.796406 242 212 158
3.551377 1.312473 -0.950288 221 219 217
0.688286 3.315960 -0.253345 201 201 199
0.684492 3.324704 -0.253321 212 212 209
2.863469 3.930817 -1.037289 228 226 223
0.646227 3.430955 -1.315479 168 172 174
0.650880 3.427049 -1.320249 82 85 86
0.670143 3.423791 -1.330065 143 145 145
1.837305 3.601920 -1.476645 111 103 92
0.527154 2.114983 -1.913705 101 92 87
1.903640 3.625013 -1.486627 65 58 49
0.605210 3.447815 -1.387594 47 48 55
